   -2.05    -6.88    -8.65     0.90     0.90     0.90
   -2.28    -7.22    -8.75     0.90     0.90     0.90
   -2.40    -7.13    -8.92     0.90     0.90     0.90
   -2.10    -7.09    -8.62     0.90     0.90     0.90
   -2.32    -6.66    -8.98     0.90     0.90     0.90
   -2.34    -6.42    -8.97     0.90     0.90     0.90
   -2.17    -6.54    -8.83     0.90     0.90     0.90
   -2.20    -6.31    -8.81     0.90     0.90     0.90
   -2.05    -6.44    -8.65     0.90     0.90     0.90
   -2.28    -6.10    -8.75     0.90     0.90     0.90
   -2.40    -6.19    -8.92     0.90     0.90     0.90
   -2.03    -6.66    -8.66     0.90     0.90     0.90
   -2.10    -6.23    -8.62     0.90     0.90     0.90
   -2.39    -5.75    -8.44     0.90     0.90     0.90
   -2.34    -5.89    -8.62     0.90     0.90     0.90
   -2.18    -6.03    -8.57     0.90     0.90     0.90
   -3.18    -8.80    -7.57     0.90     0.90     0.90
   -3.19    -9.01    -7.29     0.90     0.90     0.90
   -3.13    -9.19    -6.99     0.90     0.90     0.90
   -3.36    -8.93    -7.00     0.90     0.90     0.90
   -3.27    -9.09    -6.70     0.90     0.90     0.90
   -3.01    -9.04    -5.85     0.00     1.00     0.00
   -3.20    -9.04    -6.16     0.00     1.00     0.00
   -3.12    -9.21    -6.41     0.90     0.90     0.90
   -3.01    -9.33    -6.68     0.90     0.90     0.90
   -2.95    -9.25    -6.10     0.00     1.00     0.00
   -3.24    -8.84    -5.92     0.00     1.00     0.00
   -3.37    -8.94    -6.42     0.00     1.00     0.00
   -3.34    -8.53    -7.56     0.90     0.90     0.90
   -3.03    -8.26    -8.01     0.90     0.90     0.90
   -3.12    -8.55    -7.82     0.90     0.90     0.90
   -3.27    -8.26    -7.78     0.90     0.90     0.90
   -3.65    -8.31    -6.95     0.00     1.00     0.00
   -3.46    -8.25    -7.51     0.90     0.90     0.90
   -3.38    -8.74    -7.29     0.90     0.90     0.90
   -3.53    -8.45    -7.26     0.90     0.90     0.90
   -3.54    -8.63    -6.99     0.00     1.00     0.00
   -3.48    -8.80    -6.70     0.00     1.00     0.00
   -3.36    -8.56    -5.85     0.00     1.00     0.00
   -3.42    -8.75    -6.16     0.00     1.00     0.00
   -3.55    -8.62    -6.41     0.00     1.00     0.00
   -3.63    -8.48    -6.68     0.00     1.00     0.00
   -3.70    -8.13    -6.66     0.00     1.00     0.00
   -3.65    -8.29    -6.37     0.00     1.00     0.00
   -3.53    -8.44    -6.10     0.00     1.00     0.00
   -3.59    -8.12    -6.07     0.00     1.00     0.00
   -3.46    -7.95    -5.79     0.00     1.00     0.00
   -3.43    -8.26    -5.80     0.00     1.00     0.00
   -3.21    -8.44    -5.58     0.00     1.00     0.00
   -3.26    -8.12    -5.54     0.00     1.00     0.00
   -3.11    -8.75    -5.65     0.00     1.00     0.00
   -3.26    -7.78    -5.54     0.00     1.00     0.00
   -2.86    -9.40    -6.95     0.90     0.90     0.90
   -2.36    -9.61    -6.66     0.90     0.90     0.90
   -2.19    -9.61    -6.37     0.90     0.90     0.90
   -2.70    -9.50    -6.66     0.90     0.90     0.90
   -2.53    -9.54    -6.36     0.90     0.90     0.90
   -2.34    -9.50    -6.07     0.90     0.90     0.90
   -2.84    -9.40    -6.37     0.90     0.90     0.90
   -2.66    -9.40    -6.07     0.90     0.90     0.90
   -2.75    -9.21    -5.80     0.00     1.00     0.00
   -2.74    -8.26    -8.18     0.90     0.90     0.90
   -2.62    -7.95    -8.27     0.90     0.90     0.90
   -2.32    -7.95    -8.35     0.90     0.90     0.90
   -1.49    -9.55    -6.42     0.90     0.90     0.90
   -1.85    -9.62    -6.41     0.90     0.90     0.90
   -2.01    -7.95    -8.38     0.90     0.90     0.90
   -1.29    -7.42    -8.13     0.90     0.90     0.90
   -1.51    -7.59    -8.27     0.90     0.90     0.90
   -1.76    -7.77    -8.35     0.90     0.90     0.90
   -1.49    -7.95    -8.30     0.90     0.90     0.90
   -1.23    -7.77    -8.18     0.90     0.90     0.90
   -0.65    -8.94    -6.94     0.90     0.90     0.90
   -1.01    -9.33    -6.68     0.90     0.90     0.90
   -0.75    -9.09    -6.66     0.90     0.90     0.90
   -0.76    -8.12    -7.82     0.90     0.90     0.90
   -0.59    -8.26    -7.56     0.90     0.90     0.90
   -0.49    -8.44    -7.26     0.90     0.90     0.90
   -0.43    -8.12    -7.29     0.90     0.90     0.90
   -0.37    -8.29    -6.99     0.90     0.90     0.90
   -0.32    -8.13    -6.70     0.00     1.00     0.00
   -0.47    -8.62    -6.95     0.90     0.90     0.90
   -0.66    -8.56    -7.51     0.90     0.90     0.90
   -0.60    -8.75    -7.20     0.90     0.90     0.90
   -0.39    -8.48    -6.68     0.90     0.90     0.90
   -0.54    -8.80    -6.66     0.90     0.90     0.90
   -0.98    -7.95    -8.03     0.90     0.90     0.90
   -1.01    -7.61    -8.01     0.90     0.90     0.90
   -0.76    -7.78    -7.82     0.90     0.90     0.90
   -0.81    -7.46    -7.78     0.00     1.00     0.00
   -0.59    -7.64    -7.56     0.00     1.00     0.00
   -0.91    -7.15    -7.71     0.00     1.00     0.00
   -1.08    -7.28    -7.94     0.00     1.00     0.00
   -0.56    -7.95    -7.57     0.90     0.90     0.90
   -0.43    -7.78    -7.29     0.00     1.00     0.00
   -0.49    -7.46    -7.26     0.00     1.00     0.00
   -0.47    -7.28    -6.95     0.00     1.00     0.00
   -0.32    -7.77    -6.70     0.00     1.00     0.00
   -0.66    -7.34    -7.51     0.00     1.00     0.00
   -0.34    -7.95    -7.00     0.00     1.00     0.00
   -0.37    -7.61    -6.99     0.00     1.00     0.00
   -0.60    -7.15    -7.20     0.00     1.00     0.00
   -0.54    -7.10    -6.66     0.00     1.00     0.00
   -0.39    -7.42    -6.68     0.00     1.00     0.00
   -1.01    -6.86    -7.51     0.00     1.00     0.00
   -0.78    -7.06    -7.44     0.00     1.00     0.00
   -0.90    -6.69    -6.95     0.00     1.00     0.00
   -0.82    -6.86    -7.20     0.00     1.00     0.00
   -0.65    -6.96    -6.94     0.00     1.00     0.00
   -0.75    -6.81    -6.66     0.00     1.00     0.00
   -0.66    -6.97    -6.36     0.00     1.00     0.00
   -0.89    -6.71    -6.37     0.00     1.00     0.00
   -3.83    -7.63    -7.92     0.90     0.90     0.90
   -3.63    -7.87    -7.91     0.90     0.90     0.90
   -3.60    -8.07    -7.61     0.90     0.90     0.90
   -3.84    -7.84    -7.64     0.90     0.90     0.90
   -3.78    -8.02    -7.34     0.90     0.90     0.90
   -4.01    -7.76    -7.35     0.90     0.90     0.90
   -3.92    -7.92    -7.05     0.00     1.00     0.00
   -3.66    -7.87    -6.20     0.00     1.00     0.00
   -3.85    -7.87    -6.51     0.00     1.00     0.00
   -3.77    -8.04    -6.76     0.00     1.00     0.00
   -3.89    -7.67    -6.27     0.00     1.00     0.00
   -4.02    -7.77    -6.77     0.00     1.00     0.00
   -4.30    -7.14    -7.30     0.90     0.90     0.90
   -4.27    -6.96    -7.55     0.90     0.90     0.90
   -4.34    -6.78    -7.29     0.90     0.90     0.90
   -4.03    -7.57    -7.64     0.90     0.90     0.90
   -4.18    -7.28    -7.61     0.90     0.90     0.90
   -4.19    -7.46    -7.34     0.90     0.90     0.90
   -4.13    -7.63    -7.05     0.00     1.00     0.00
   -4.01    -7.39    -6.20     0.00     1.00     0.00
   -4.07    -7.58    -6.51     0.00     1.00     0.00
   -4.20    -7.45    -6.76     0.00     1.00     0.00
   -4.28    -7.31    -7.03     0.00     1.00     0.00
   -4.35    -6.96    -7.01     0.90     0.90     0.90
   -4.30    -7.12    -6.72     0.00     1.00     0.00
   -4.18    -7.27    -6.45     0.00     1.00     0.00
   -4.33    -6.78    -6.71     0.00     1.00     0.00
   -4.24    -6.95    -6.42     0.00     1.00     0.00
   -4.08    -7.09    -6.15     0.00     1.00     0.00
   -3.86    -7.27    -5.93     0.00     1.00     0.00
   -3.59    -7.45    -5.77     0.00     1.00     0.00
   -3.76    -7.58    -6.00     0.00     1.00     0.00
   -4.28    -6.25    -7.03     0.90     0.90     0.90
   -4.30    -6.42    -7.30     0.90     0.90     0.90
   -4.27    -6.60    -7.55     0.90     0.90     0.90
   -4.18    -6.28    -7.61     0.90     0.90     0.90
   -4.03    -5.99    -7.64     0.90     0.90     0.90
   -4.19    -6.10    -7.34     0.90     0.90     0.90
   -4.35    -6.60    -7.01     0.90     0.90     0.90
   -4.30    -6.44    -6.72     0.00     1.00     0.00
   -3.08    -8.07    -8.06     0.90     0.90     0.90
   -3.01    -7.87    -8.29     0.90     0.90     0.90
   -3.34    -7.88    -8.13     0.90     0.90     0.90
   -2.68    -7.84    -8.36     0.90     0.90     0.90
   -3.39    -8.07    -7.86     0.90     0.90     0.90
   -3.38    -7.31    -5.58     0.00     1.00     0.00
   -2.76    -5.49    -8.13     0.90     0.90     0.90
   -2.83    -5.31    -7.86     0.90     0.90     0.90
   -2.34    -7.76    -8.38     0.90     0.90     0.90
   -1.94    -7.31    -8.48     0.90     0.90     0.90
   -1.88    -6.96    -8.53     0.90     0.90     0.90
   -2.25    -7.46    -8.53     0.90     0.90     0.90
   -2.02    -7.63    -8.36     0.90     0.90     0.90
   -1.94    -6.25    -8.48     0.90     0.90     0.90
   -2.02    -5.93    -8.36     0.90     0.90     0.90
   -1.88    -6.60    -8.53     0.90     0.90     0.90
   -1.92    -5.52    -7.91     0.90     0.90     0.90
   -2.21    -5.40    -7.92     0.90     0.90     0.90
   -2.43    -5.54    -8.17     0.90     0.90     0.90
   -2.12    -5.64    -8.17     0.90     0.90     0.90
   -1.82    -5.79    -8.13     0.90     0.90     0.90
   -2.52    -5.33    -7.91     0.90     0.90     0.90
   -2.33    -5.23    -7.64     0.90     0.90     0.90
   -2.01    -5.33    -7.64     0.00     1.00     0.00
   -1.66    -7.12    -8.36     0.90     0.90     0.90
   -1.41    -6.95    -8.17     0.90     0.90     0.90
   -1.73    -7.45    -8.29     0.90     0.90     0.90
   -1.63    -6.78    -8.38     0.90     0.90     0.90
   -1.66    -6.44    -8.36     0.90     0.90     0.90
   -1.41    -6.61    -8.17     0.90     0.90     0.90
   -1.46    -6.29    -8.13     0.90     0.90     0.90
   -1.24    -6.47    -7.91     0.00     1.00     0.00
   -1.56    -5.98    -8.06     0.90     0.90     0.90
   -1.73    -6.11    -8.29     0.90     0.90     0.90
   -1.21    -6.78    -7.92     0.00     1.00     0.00
   -1.08    -6.61    -7.64     0.00     1.00     0.00
   -1.14    -6.29    -7.61     0.00     1.00     0.00
   -1.12    -6.11    -7.30     0.00     1.00     0.00
   -0.97    -6.60    -7.05     0.00     1.00     0.00
   -1.31    -6.17    -7.86     0.00     1.00     0.00
   -1.02    -6.44    -7.34     0.00     1.00     0.00
   -1.25    -5.98    -7.55     0.00     1.00     0.00
   -1.14    -6.28    -6.45     0.00     1.00     0.00
   -1.13    -6.10    -6.72     0.00     1.00     0.00
   -1.19    -5.93    -7.01     0.00     1.00     0.00
   -1.04    -6.25    -7.03     0.00     1.00     0.00
   -1.21    -6.48    -6.20     0.00     1.00     0.00
   -1.02    -6.42    -6.76     0.00     1.00     0.00
   -1.72    -5.48    -7.61     0.00     1.00     0.00
   -1.66    -5.69    -7.86     0.00     1.00     0.00
   -1.43    -5.89    -7.79     0.00     1.00     0.00
   -1.55    -5.52    -7.30     0.00     1.00     0.00
   -1.47    -5.69    -7.55     0.00     1.00     0.00
   -1.30    -5.79    -7.29     0.00     1.00     0.00
   -5.78    -3.13    -8.86     1.00     0.00     0.00
   -5.65    -3.28    -8.85     1.00     0.00     0.00
   -5.61    -3.14    -9.02     1.00     0.00     0.00
   -5.63    -3.42    -8.65     1.00     0.00     0.00
   -5.78    -3.27    -8.67     1.00     0.00     0.00
   -5.89    -3.22    -8.49     1.00     0.00     0.00
   -5.88    -2.96    -8.85     1.00     0.00     0.00
   -5.68    -2.78    -9.14     1.00     0.00     0.00
   -5.74    -2.97    -9.02     1.00     0.00     0.00
   -5.83    -2.78    -8.99     1.00     0.00     0.00
   -6.08    -2.81    -8.45     1.00     0.00     0.00
   -6.06    -2.70    -8.62     1.00     0.00     0.00
   -5.96    -2.77    -8.82     1.00     0.00     0.00
   -6.11    -2.58    -8.45     1.00     0.00     0.00
   -5.91    -3.09    -8.67     1.00     0.00     0.00
   -6.00    -2.90    -8.65     1.00     0.00     0.00
   -6.01    -3.02    -8.48     1.00     0.00     0.00
   -5.97    -3.13    -8.30     1.00     0.00     0.00
   -6.02    -3.02    -8.11     1.00     0.00     0.00
   -6.07    -2.92    -8.28     1.00     0.00     0.00
   -6.11    -2.70    -8.26     1.00     0.00     0.00
   -6.08    -2.80    -8.08     1.00     0.00     0.00
   -6.10    -2.58    -8.07     1.00     0.00     0.00
   -6.04    -2.69    -7.89     1.00     0.00     0.00
   -5.88    -2.20    -8.85     1.00     0.00     0.00
   -5.90    -2.58    -8.94     1.00     0.00     0.00
   -5.76    -2.58    -9.09     1.00     0.00     0.00
   -5.60    -2.58    -9.22     1.00     0.00     0.00
   -5.68    -2.38    -9.14     1.00     0.00     0.00
   -5.83    -2.38    -8.99     1.00     0.00     0.00
   -5.74    -2.19    -9.02     1.00     0.00     0.00
   -6.07    -2.24    -8.28     1.00     0.00     0.00
   -6.08    -2.35    -8.45     1.00     0.00     0.00
   -6.06    -2.46    -8.62     1.00     0.00     0.00
   -6.00    -2.58    -8.77     1.00     0.00     0.00
   -5.96    -2.39    -8.82     1.00     0.00     0.00
   -6.00    -2.26    -8.65     1.00     0.00     0.00
   -5.91    -2.07    -8.67     1.00     0.00     0.00
   -6.01    -2.14    -8.48     1.00     0.00     0.00
   -5.97    -2.03    -8.30     1.00     0.00     0.00
   -5.93    -2.06    -7.94     1.00     0.00     0.00
   -6.02    -2.14    -8.11     1.00     0.00     0.00
   -6.11    -2.46    -8.26     1.00     0.00     0.00
   -6.08    -2.36    -8.08     1.00     0.00     0.00
   -6.04    -2.47    -7.89     1.00     0.00     0.00
   -6.00    -2.26    -7.91     1.00     0.00     0.00
   -5.89    -2.18    -7.74     1.00     0.00     0.00
   -5.65    -1.88    -8.85     1.00     0.00     0.00
   -5.78    -2.03    -8.86     1.00     0.00     0.00
   -5.61    -2.02    -9.02     1.00     0.00     0.00
   -5.67    -1.69    -8.28     1.00     0.00     0.00
   -5.78    -1.89    -8.67     1.00     0.00     0.00
   -5.63    -1.74    -8.65     1.00     0.00     0.00
   -5.89    -1.94    -8.49     1.00     0.00     0.00
   -5.75    -1.78    -8.48     1.00     0.00     0.00
   -5.84    -1.84    -8.30     1.00     0.00     0.00
   -5.67    -1.87    -7.74     1.00     0.00     0.00
   -5.63    -1.74    -7.91     1.00     0.00     0.00
   -5.79    -1.87    -7.94     1.00     0.00     0.00
   -5.74    -1.77    -8.11     1.00     0.00     0.00
   -5.90    -1.94    -8.11     1.00     0.00     0.00
   -5.82    -2.00    -7.79     1.00     0.00     0.00
   -5.29    -3.41    -8.94     1.00     0.00     0.00
   -5.25    -3.28    -9.09     1.00     0.00     0.00
   -5.20    -3.13    -9.22     1.00     0.00     0.00
   -5.42    -3.14    -9.14     1.00     0.00     0.00
   -5.46    -3.29    -8.99     1.00     0.00     0.00
   -5.03    -3.27    -9.14     1.00     0.00     0.00
   -5.08    -3.42    -8.99     1.00     0.00     0.00
   -5.49    -3.41    -8.82     1.00     0.00     0.00
   -5.14    -2.96    -9.31     1.00     0.00     0.00
   -5.08    -2.77    -9.36     1.00     0.00     0.00
   -5.29    -2.78    -9.33     1.00     0.00     0.00
   -5.36    -2.97    -9.25     1.00     0.00     0.00
   -5.49    -2.78    -9.25     1.00     0.00     0.00
   -5.56    -2.97    -9.15     1.00     0.00     0.00
   -5.14    -2.20    -9.31     1.00     0.00     0.00
   -5.08    -2.39    -9.36     1.00     0.00     0.00
   -5.42    -2.58    -9.31     1.00     0.00     0.00
   -5.22    -2.58    -9.36     1.00     0.00     0.00
   -5.29    -2.38    -9.33     1.00     0.00     0.00
   -5.49    -2.38    -9.25     1.00     0.00     0.00
   -5.36    -2.19    -9.25     1.00     0.00     0.00
   -5.56    -2.19    -9.15     1.00     0.00     0.00
   -5.25    -1.88    -9.09     1.00     0.00     0.00
   -5.20    -2.03    -9.22     1.00     0.00     0.00
   -5.29    -1.75    -8.94     1.00     0.00     0.00
   -5.03    -1.89    -9.14     1.00     0.00     0.00
   -5.08    -1.74    -8.99     1.00     0.00     0.00
   -5.42    -2.02    -9.14     1.00     0.00     0.00
   -5.46    -1.87    -8.99     1.00     0.00     0.00
   -5.13    -1.63    -8.82     1.00     0.00     0.00
   -5.49    -1.75    -8.82     1.00     0.00     0.00
   -5.36    -1.55    -8.45     1.00     0.00     0.00
   -5.57    -1.64    -8.45     1.00     0.00     0.00
   -5.23    -1.55    -8.62     1.00     0.00     0.00
   -5.45    -1.63    -8.62     1.00     0.00     0.00
   -5.13    -1.50    -8.45     1.00     0.00     0.00
   -5.32    -1.64    -8.77     1.00     0.00     0.00
   -5.47    -1.58    -8.26     1.00     0.00     0.00
   -5.56    -1.64    -8.08     1.00     0.00     0.00
   -5.25    -1.50    -8.26     1.00     0.00     0.00
   -5.35    -1.55    -8.07     1.00     0.00     0.00
   -5.44    -1.64    -7.89     1.00     0.00     0.00
   -5.14    -1.50    -8.08     1.00     0.00     0.00
   -5.23    -1.58    -7.89     1.00     0.00     0.00
   -5.02    -1.55    -7.91     1.00     0.00     0.00
   -5.02    -1.48    -8.28     1.00     0.00     0.00
   -5.31    -1.69    -7.70     1.00     0.00     0.00
   -5.50    -1.77    -7.71     1.00     0.00     0.00
   -4.81    -3.22    -9.15     1.00     0.00     0.00
   -4.55    -2.92    -9.22     1.00     0.00     0.00
   -4.70    -2.81    -9.31     1.00     0.00     0.00
   -4.86    -2.70    -9.36     1.00     0.00     0.00
   -4.52    -2.70    -9.25     1.00     0.00     0.00
   -4.92    -2.90    -9.33     1.00     0.00     0.00
   -4.76    -3.02    -9.25     1.00     0.00     0.00
   -4.61    -3.13    -9.14     1.00     0.00     0.00
   -4.97    -3.09    -9.25     1.00     0.00     0.00
   -5.02    -2.58    -9.38     1.00     0.00     0.00
   -4.55    -2.24    -9.22     1.00     0.00     0.00
   -4.70    -2.35    -9.31     1.00     0.00     0.00
   -4.86    -2.46    -9.36     1.00     0.00     0.00
   -4.92    -2.26    -9.33     1.00     0.00     0.00
   -4.97    -2.07    -9.25     1.00     0.00     0.00
   -4.76    -2.14    -9.25     1.00     0.00     0.00
   -4.61    -2.03    -9.14     1.00     0.00     0.00
   -4.68    -2.58    -9.33     1.00     0.00     0.00
   -4.52    -2.46    -9.25     1.00     0.00     0.00
   -4.54    -1.77    -8.85     1.00     0.00     0.00
   -4.73    -1.69    -8.86     1.00     0.00     0.00
   -4.81    -1.94    -9.15     1.00     0.00     0.00
   -4.87    -1.78    -9.02     1.00     0.00     0.00
   -4.67    -1.84    -9.02     1.00     0.00     0.00
   -4.48    -1.94    -8.99     1.00     0.00     0.00
   -4.93    -1.64    -8.85     1.00     0.00     0.00
   -4.69    -1.55    -8.49     1.00     0.00     0.00
   -4.48    -1.64    -8.48     1.00     0.00     0.00
   -4.79    -1.50    -8.30     1.00     0.00     0.00
   -4.57    -1.58    -8.30     1.00     0.00     0.00
   -4.90    -1.50    -8.48     1.00     0.00     0.00
   -5.02    -1.55    -8.65     1.00     0.00     0.00
   -4.81    -1.58    -8.67     1.00     0.00     0.00
   -4.60    -1.64    -8.67     1.00     0.00     0.00
   -4.91    -1.50    -8.11     1.00     0.00     0.00
   -4.68    -1.55    -8.11     1.00     0.00     0.00
   -4.81    -1.55    -7.94     1.00     0.00     0.00
   -4.37    -2.80    -9.14     1.00     0.00     0.00
   -4.35    -2.58    -9.15     1.00     0.00     0.00
   -4.37    -2.36    -9.14     1.00     0.00     0.00
   -4.21    -2.47    -9.02     1.00     0.00     0.00
   -4.24    -2.26    -8.99     1.00     0.00     0.00
   -4.31    -2.06    -8.94     1.00     0.00     0.00
   -4.42    -2.14    -9.09     1.00     0.00     0.00
   -4.15    -2.18    -8.82     1.00     0.00     0.00
   -4.41    -1.74    -8.65     1.00     0.00     0.00
   -4.37    -1.87    -8.82     1.00     0.00     0.00
   -4.22    -2.00    -8.77     1.00     0.00     0.00
   -4.30    -1.77    -8.45     1.00     0.00     0.00
   -4.25    -1.87    -8.62     1.00     0.00     0.00
   -4.46    -5.80    -7.04     0.00     1.00     0.00
   -4.70    -5.57    -7.07     1.00     0.00     0.00
   -4.64    -5.75    -6.77     0.00     1.00     0.00
   -4.87    -5.49    -6.78     0.00     1.00     0.00
   -4.78    -5.65    -6.48     0.00     1.00     0.00
   -4.52    -5.60    -5.63     0.00     1.00     0.00
   -4.71    -5.60    -5.94     0.00     1.00     0.00
   -4.63    -5.77    -6.19     0.00     1.00     0.00
   -4.52    -5.89    -6.46     0.00     1.00     0.00
   -4.75    -5.40    -5.70     0.00     1.00     0.00
   -4.88    -5.50    -6.20     0.00     1.00     0.00
   -5.16    -4.87    -6.73     1.00     0.00     0.00
   -5.05    -5.19    -6.77     1.00     0.00     0.00
   -4.99    -5.36    -6.48     0.00     1.00     0.00
   -4.87    -5.12    -5.63     0.00     1.00     0.00
   -4.93    -5.31    -5.94     0.00     1.00     0.00
   -5.06    -5.18    -6.19     0.00     1.00     0.00
   -5.14    -5.04    -6.46     0.00     1.00     0.00
   -5.21    -4.69    -6.44     0.00     1.00     0.00
   -5.16    -4.85    -6.15     0.00     1.00     0.00
   -5.04    -5.00    -5.88     0.00     1.00     0.00
   -5.19    -4.51    -6.14     0.00     1.00     0.00
   -5.10    -4.68    -5.85     0.00     1.00     0.00
   -4.97    -4.51    -5.57     1.00     0.00     0.00
   -4.94    -4.82    -5.58     0.00     1.00     0.00
   -4.72    -5.00    -5.36     0.00     1.00     0.00
   -4.77    -4.68    -5.32     1.00     0.00     0.00
   -4.52    -4.85    -5.13     1.00     0.00     0.00
   -4.45    -5.18    -5.20     0.00     1.00     0.00
   -4.62    -5.31    -5.43     0.00     1.00     0.00
   -5.14    -3.98    -6.46     1.00     0.00     0.00
   -5.21    -4.33    -6.44     1.00     0.00     0.00
   -5.16    -4.17    -6.15     1.00     0.00     0.00
   -5.10    -4.34    -5.85     1.00     0.00     0.00
   -4.25    -5.80    -7.29     1.00     0.00     0.00
   -4.36    -5.50    -5.36     0.00     1.00     0.00
   -4.02    -4.87    -4.87     1.00     0.00     0.00
   -4.24    -5.04    -5.01     0.00     1.00     0.00
   -2.78    -3.25    -7.34     1.00     0.00     0.00
   -2.69    -3.06    -6.77     1.00     0.00     0.00
   -2.87    -3.06    -7.07     1.00     0.00     0.00
   -2.52    -4.85    -7.79     1.00     0.00     0.00
   -2.32    -5.00    -7.56     0.00     1.00     0.00
   -2.27    -4.68    -7.60     0.00     1.00     0.00
   -2.10    -4.82    -7.34     0.00     1.00     0.00
   -2.59    -5.18    -7.72     0.90     0.90     0.90
   -1.94    -4.68    -7.07     0.00     1.00     0.00
   -2.49    -4.51    -7.81     1.00     0.00     0.00
   -2.27    -4.34    -7.60     0.00     1.00     0.00
   -2.32    -4.02    -7.56     0.00     1.00     0.00
   -2.10    -4.20    -7.34     0.00     1.00     0.00
   -2.42    -3.71    -7.49     0.00     1.00     0.00
   -2.07    -4.51    -7.35     0.00     1.00     0.00
   -1.94    -4.34    -7.07     0.00     1.00     0.00
   -2.00    -4.02    -7.04     0.00     1.00     0.00
   -1.98    -3.84    -6.73     0.00     1.00     0.00
   -1.83    -4.33    -6.48     0.00     1.00     0.00
   -2.17    -3.90    -7.29     0.00     1.00     0.00
   -1.85    -4.51    -6.78     0.00     1.00     0.00
   -1.88    -4.17    -6.77     0.00     1.00     0.00
   -2.11    -3.71    -6.98     0.00     1.00     0.00
   -1.99    -3.83    -6.15     0.90     0.90     0.90
   -2.05    -3.66    -6.44     0.90     0.90     0.90
   -1.90    -3.98    -6.46     0.90     0.90     0.90
   -1.88    -4.15    -6.19     0.90     0.90     0.90
   -1.91    -4.33    -5.94     0.90     0.90     0.90
   -2.58    -3.21    -7.04     0.00     1.00     0.00
   -2.52    -3.42    -7.29     0.00     1.00     0.00
   -2.29    -3.62    -7.22     0.00     1.00     0.00
   -2.41    -3.25    -6.73     0.00     1.00     0.00
   -2.33    -3.42    -6.98     0.00     1.00     0.00
   -2.16    -3.52    -6.72     0.00     1.00     0.00
   -2.26    -3.37    -6.44     0.90     0.90     0.90
   -3.82    -6.85    -5.26     0.00     1.00     0.00
   -4.01    -6.85    -5.57     0.00     1.00     0.00
   -3.93    -7.02    -5.82     0.00     1.00     0.00
   -3.76    -7.06    -5.51     0.00     1.00     0.00
   -4.05    -6.65    -5.33     0.00     1.00     0.00
   -4.18    -6.75    -5.83     0.00     1.00     0.00
   -4.46    -6.12    -6.36     0.00     1.00     0.00
   -4.43    -5.94    -6.61     0.00     1.00     0.00
   -4.27    -6.06    -6.92     0.00     1.00     0.00
   -4.34    -6.26    -6.67     0.00     1.00     0.00
   -4.35    -6.44    -6.40     0.00     1.00     0.00
   -4.29    -6.61    -6.11     0.00     1.00     0.00
   -4.17    -6.37    -5.26     0.00     1.00     0.00
   -4.23    -6.56    -5.57     0.00     1.00     0.00
   -4.36    -6.43    -5.82     0.00     1.00     0.00
   -4.44    -6.29    -6.09     0.00     1.00     0.00
   -4.51    -5.94    -6.07     0.00     1.00     0.00
   -4.46    -6.10    -5.78     0.00     1.00     0.00
   -4.34    -6.25    -5.51     0.00     1.00     0.00
   -4.49    -5.76    -5.77     0.00     1.00     0.00
   -4.40    -5.93    -5.48     0.00     1.00     0.00
   -4.27    -5.76    -5.20     0.00     1.00     0.00
   -4.24    -6.07    -5.21     0.00     1.00     0.00
   -4.02    -6.25    -4.99     0.00     1.00     0.00
   -4.07    -5.93    -4.95     0.00     1.00     0.00
   -3.92    -6.56    -5.06     0.00     1.00     0.00
   -4.40    -5.59    -5.48     0.00     1.00     0.00
   -4.07    -5.59    -4.95     0.00     1.00     0.00
   -4.02    -5.27    -4.99     0.00     1.00     0.00
   -4.24    -5.45    -5.21     0.00     1.00     0.00
   -3.15    -7.31    -5.48     0.00     1.00     0.00
   -3.47    -7.21    -5.48     0.00     1.00     0.00
   -3.56    -7.02    -5.21     0.00     1.00     0.00
   -2.10    -5.23    -7.54     0.00     1.00     0.00
   -1.98    -4.77    -7.19     0.00     1.00     0.00
   -1.18    -6.10    -6.40     0.00     1.00     0.00
   -1.13    -5.94    -6.11     0.00     1.00     0.00
   -1.20    -6.29    -6.09     0.00     1.00     0.00
   -1.62    -5.27    -7.19     0.00     1.00     0.00
   -1.40    -5.45    -6.97     0.00     1.00     0.00
   -1.72    -4.96    -7.12     0.00     1.00     0.00
   -1.89    -5.09    -7.35     0.00     1.00     0.00
   -1.24    -5.59    -6.70     0.00     1.00     0.00
   -1.30    -5.27    -6.67     0.00     1.00     0.00
   -1.28    -5.09    -6.36     0.00     1.00     0.00
   -1.13    -5.58    -6.11     0.00     1.00     0.00
   -1.47    -5.15    -6.92     0.00     1.00     0.00
   -1.15    -5.76    -6.41     0.00     1.00     0.00
   -1.18    -5.42    -6.40     0.00     1.00     0.00
   -1.41    -4.96    -6.61     0.00     1.00     0.00
   -1.35    -4.91    -6.07     0.00     1.00     0.00
   -1.20    -5.23    -6.09     0.00     1.00     0.00
   -1.82    -4.67    -6.92     0.00     1.00     0.00
   -1.59    -4.87    -6.85     0.00     1.00     0.00
   -1.71    -4.50    -6.36     0.00     1.00     0.00
   -1.63    -4.67    -6.61     0.00     1.00     0.00
   -1.46    -4.77    -6.35     0.00     1.00     0.00
   -1.82    -4.38    -6.09     0.90     0.90     0.90
   -1.56    -4.62    -6.07     0.90     0.90     0.90
   -1.47    -4.78    -5.77     0.90     0.90     0.90
   -1.70    -4.52    -5.78     0.90     0.90     0.90
   -5.54    -3.62    -6.39     1.00     0.00     0.00
   -5.30    -3.58    -5.61     1.00     0.00     0.00
   -5.48    -3.58    -5.89     1.00     0.00     0.00
   -5.41    -3.72    -6.13     1.00     0.00     0.00
   -5.30    -3.83    -6.37     1.00     0.00     0.00
   -5.51    -3.39    -5.68     1.00     0.00     0.00
   -5.63    -3.48    -6.14     1.00     0.00     0.00
   -5.89    -2.91    -6.61     1.00     0.00     0.00
   -5.92    -2.58    -6.60     1.00     0.00     0.00
   -5.73    -3.35    -6.39     1.00     0.00     0.00
   -5.62    -3.14    -5.61     1.00     0.00     0.00
   -5.67    -3.31    -5.89     1.00     0.00     0.00
   -5.79    -3.19    -6.13     1.00     0.00     0.00
   -5.86    -3.06    -6.37     1.00     0.00     0.00
   -5.93    -2.74    -6.35     1.00     0.00     0.00
   -5.88    -2.89    -6.09     1.00     0.00     0.00
   -5.78    -3.03    -5.84     1.00     0.00     0.00
   -5.91    -2.58    -6.08     1.00     0.00     0.00
   -5.83    -2.73    -5.82     1.00     0.00     0.00
   -5.71    -2.58    -5.56     1.00     0.00     0.00
   -5.69    -2.86    -5.57     1.00     0.00     0.00
   -5.48    -3.03    -5.37     1.00     0.00     0.00
   -5.53    -2.73    -5.33     1.00     0.00     0.00
   -5.31    -2.89    -5.16     1.00     0.00     0.00
   -5.33    -2.58    -5.14     1.00     0.00     0.00
   -5.23    -3.19    -5.22     1.00     0.00     0.00
   -5.39    -3.31    -5.43     1.00     0.00     0.00
   -5.86    -2.10    -6.37     1.00     0.00     0.00
   -5.89    -2.25    -6.61     1.00     0.00     0.00
   -5.86    -2.41    -6.85     1.00     0.00     0.00
   -5.78    -2.13    -6.90     1.00     0.00     0.00
   -5.64    -1.86    -6.92     1.00     0.00     0.00
   -5.78    -1.96    -6.65     1.00     0.00     0.00
   -5.73    -1.81    -6.39     1.00     0.00     0.00
   -5.67    -1.85    -5.89     1.00     0.00     0.00
   -5.79    -1.97    -6.13     1.00     0.00     0.00
   -5.93    -2.42    -6.35     1.00     0.00     0.00
   -5.88    -2.27    -6.09     1.00     0.00     0.00
   -5.83    -2.43    -5.82     1.00     0.00     0.00
   -5.78    -2.13    -5.84     1.00     0.00     0.00
   -5.62    -2.02    -5.61     1.00     0.00     0.00
   -5.23    -1.97    -5.22     1.00     0.00     0.00
   -5.39    -1.85    -5.43     1.00     0.00     0.00
   -5.53    -2.43    -5.33     1.00     0.00     0.00
   -5.48    -2.13    -5.37     1.00     0.00     0.00
   -5.31    -2.27    -5.16     1.00     0.00     0.00
   -5.69    -2.30    -5.57     1.00     0.00     0.00
   -5.27    -1.59    -7.17     1.00     0.00     0.00
   -5.46    -1.80    -7.18     1.00     0.00     0.00
   -5.30    -1.33    -6.37     1.00     0.00     0.00
   -5.47    -1.61    -6.92     1.00     0.00     0.00
   -5.25    -1.40    -6.90     1.00     0.00     0.00
   -5.62    -1.69    -6.66     1.00     0.00     0.00
   -5.41    -1.45    -6.65     1.00     0.00     0.00
   -5.54    -1.54    -6.39     1.00     0.00     0.00
   -5.30    -1.58    -5.61     1.00     0.00     0.00
   -5.24    -1.40    -5.84     1.00     0.00     0.00
   -5.48    -1.58    -5.89     1.00     0.00     0.00
   -5.41    -1.44    -6.13     1.00     0.00     0.00
   -5.63    -1.68    -6.14     1.00     0.00     0.00
   -5.51    -1.77    -5.68     1.00     0.00     0.00
   -5.10    -2.74    -5.00     1.00     0.00     0.00
   -4.87    -2.58    -4.90     1.00     0.00     0.00
   -4.97    -1.81    -5.16     1.00     0.00     0.00
   -4.76    -1.96    -5.00     1.00     0.00     0.00
   -4.45    -1.86    -5.00     1.00     0.00     0.00
   -4.54    -2.13    -4.90     1.00     0.00     0.00
   -5.10    -2.42    -5.00     1.00     0.00     0.00
   -5.05    -2.10    -5.05     1.00     0.00     0.00
   -4.62    -2.41    -4.85     1.00     0.00     0.00
   -4.84    -2.25    -4.92     1.00     0.00     0.00
   -4.77    -1.40    -7.31     1.00     0.00     0.00
   -4.48    -1.40    -7.37     1.00     0.00     0.00
   -4.54    -1.24    -7.13     1.00     0.00     0.00
   -5.06    -1.40    -7.13     1.00     0.00     0.00
   -4.86    -1.12    -6.60     1.00     0.00     0.00
   -5.16    -1.26    -6.61     1.00     0.00     0.00
   -4.68    -1.13    -6.85     1.00     0.00     0.00
   -5.00    -1.24    -6.85     1.00     0.00     0.00
   -4.54    -1.06    -6.61     1.00     0.00     0.00
   -4.82    -1.26    -7.06     1.00     0.00     0.00
   -5.02    -1.16    -6.35     1.00     0.00     0.00
   -5.15    -1.26    -6.09     1.00     0.00     0.00
   -4.71    -1.06    -6.35     1.00     0.00     0.00
   -4.86    -1.13    -6.08     1.00     0.00     0.00
   -4.98    -1.26    -5.82     1.00     0.00     0.00
   -4.55    -1.06    -6.09     1.00     0.00     0.00
   -4.69    -1.16    -5.82     1.00     0.00     0.00
   -4.39    -1.12    -5.84     1.00     0.00     0.00
   -4.39    -1.03    -6.37     1.00     0.00     0.00
   -4.52    -1.26    -5.57     1.00     0.00     0.00
   -4.80    -1.33    -5.56     1.00     0.00     0.00
   -5.06    -1.44    -5.57     1.00     0.00     0.00
   -4.60    -1.45    -5.33     1.00     0.00     0.00
   -4.68    -1.69    -5.14     1.00     0.00     0.00
   -5.15    -1.68    -5.37     1.00     0.00     0.00
   -4.89    -1.54    -5.33     1.00     0.00     0.00
   -4.22    -2.05    -4.92     1.00     0.00     0.00
   -3.91    -2.03    -5.00     1.00     0.00     0.00
   -3.72    -1.44    -7.17     1.00     0.00     0.00
   -3.98    -1.33    -7.18     1.00     0.00     0.00
   -4.18    -1.45    -7.41     1.00     0.00     0.00
   -3.89    -1.54    -7.41     1.00     0.00     0.00
   -3.63    -1.68    -7.37     1.00     0.00     0.00
   -4.26    -1.26    -7.17     1.00     0.00     0.00
   -3.92    -1.13    -6.66     1.00     0.00     0.00
   -3.63    -1.26    -6.65     1.00     0.00     0.00
   -4.07    -1.06    -6.39     1.00     0.00     0.00
   -3.76    -1.16    -6.39     1.00     0.00     0.00
   -4.23    -1.06    -6.65     1.00     0.00     0.00
   -4.39    -1.12    -6.90     1.00     0.00     0.00
   -4.09    -1.16    -6.92     1.00     0.00     0.00
   -3.80    -1.26    -6.92     1.00     0.00     0.00
   -4.24    -1.24    -5.61     1.00     0.00     0.00
   -3.72    -1.40    -5.61     1.00     0.00     0.00
   -3.78    -1.24    -5.89     1.00     0.00     0.00
   -4.24    -1.06    -6.13     1.00     0.00     0.00
   -3.92    -1.12    -6.14     1.00     0.00     0.00
   -3.62    -1.26    -6.13     1.00     0.00     0.00
   -3.96    -1.26    -5.68     1.00     0.00     0.00
   -4.10    -1.13    -5.89     1.00     0.00     0.00
   -3.83    -1.79    -5.16     1.00     0.00     0.00
   -4.14    -1.80    -5.05     1.00     0.00     0.00
   -4.30    -1.40    -5.37     1.00     0.00     0.00
   -4.07    -1.59    -5.22     1.00     0.00     0.00
   -4.01    -1.40    -5.43     1.00     0.00     0.00
   -4.37    -1.61    -5.16     1.00     0.00     0.00
   -3.77    -1.58    -5.37     1.00     0.00     0.00
   -2.95    -2.73    -6.92     1.00     0.00     0.00
   -3.30    -2.13    -7.37     1.00     0.00     0.00
   -3.09    -2.30    -7.17     1.00     0.00     0.00
   -3.39    -1.85    -7.31     1.00     0.00     0.00
   -3.07    -2.58    -7.18     1.00     0.00     0.00
   -2.95    -2.43    -6.92     1.00     0.00     0.00
   -3.00    -2.13    -6.90     1.00     0.00     0.00
   -2.99    -1.97    -6.61     1.00     0.00     0.00
   -3.16    -2.02    -7.13     1.00     0.00     0.00
   -2.87    -2.58    -6.66     1.00     0.00     0.00
   -2.90    -2.27    -6.65     1.00     0.00     0.00
   -3.11    -1.85    -6.85     1.00     0.00     0.00
   -3.00    -1.96    -6.09     1.00     0.00     0.00
   -3.05    -1.81    -6.35     1.00     0.00     0.00
   -2.92    -2.10    -6.37     1.00     0.00     0.00
   -3.14    -1.86    -5.82     1.00     0.00     0.00
   -3.54    -1.40    -6.90     1.00     0.00     0.00
   -3.48    -1.58    -7.13     1.00     0.00     0.00
   -3.27    -1.77    -7.06     1.00     0.00     0.00
   -3.37    -1.44    -6.61     1.00     0.00     0.00
   -3.30    -1.58    -6.85     1.00     0.00     0.00
   -3.15    -1.68    -6.60     1.00     0.00     0.00
   -3.48    -1.33    -6.37     1.00     0.00     0.00
   -3.24    -1.54    -6.35     1.00     0.00     0.00
   -3.53    -1.40    -5.84     1.00     0.00     0.00
   -3.16    -1.69    -6.08     1.00     0.00     0.00
   -3.37    -1.45    -6.09     1.00     0.00     0.00
   -3.31    -1.61    -5.82     1.00     0.00     0.00
   -3.32    -1.80    -5.56     1.00     0.00     0.00
   -3.51    -1.59    -5.57     1.00     0.00     0.00
   -3.56    -1.79    -5.33     1.00     0.00     0.00
   -5.63    -3.82    -8.37     1.00     0.00     0.00
   -5.44    -4.03    -8.36     1.00     0.00     0.00
   -5.39    -3.83    -8.60     1.00     0.00     0.00
   -5.64    -4.01    -8.11     1.00     0.00     0.00
   -5.79    -3.93    -7.85     1.00     0.00     0.00
   -5.71    -4.08    -7.58     1.00     0.00     0.00
   -5.47    -4.04    -6.80     1.00     0.00     0.00
   -5.65    -4.04    -7.08     1.00     0.00     0.00
   -5.58    -4.18    -7.32     1.00     0.00     0.00
   -5.68    -3.85    -6.87     1.00     0.00     0.00
   -5.80    -3.94    -7.33     1.00     0.00     0.00
   -5.78    -3.57    -8.36     1.00     0.00     0.00
   -5.57    -3.59    -8.60     1.00     0.00     0.00
   -6.06    -3.37    -7.80     1.00     0.00     0.00
   -6.03    -3.21    -8.04     1.00     0.00     0.00
   -5.88    -3.31    -8.32     1.00     0.00     0.00
   -6.09    -3.04    -7.79     1.00     0.00     0.00
   -5.81    -3.76    -8.11     1.00     0.00     0.00
   -5.95    -3.49    -8.09     1.00     0.00     0.00
   -5.95    -3.66    -7.84     1.00     0.00     0.00
   -5.90    -3.81    -7.58     1.00     0.00     0.00
   -5.79    -3.60    -6.80     1.00     0.00     0.00
   -5.84    -3.77    -7.08     1.00     0.00     0.00
   -5.96    -3.65    -7.32     1.00     0.00     0.00
   -6.03    -3.52    -7.56     1.00     0.00     0.00
   -6.10    -3.20    -7.54     1.00     0.00     0.00
   -6.05    -3.35    -7.28     1.00     0.00     0.00
   -5.95    -3.49    -7.03     1.00     0.00     0.00
   -6.08    -3.04    -7.27     1.00     0.00     0.00
   -6.00    -3.19    -7.01     1.00     0.00     0.00
   -5.88    -3.04    -6.75     1.00     0.00     0.00
   -5.86    -3.32    -6.76     1.00     0.00     0.00
   -5.65    -3.49    -6.56     1.00     0.00     0.00
   -5.56    -3.77    -6.62     1.00     0.00     0.00
   -6.03    -2.56    -7.56     1.00     0.00     0.00
   -6.06    -2.71    -7.80     1.00     0.00     0.00
   -5.90    -2.27    -7.58     1.00     0.00     0.00
   -5.84    -2.31    -7.08     1.00     0.00     0.00
   -5.96    -2.43    -7.32     1.00     0.00     0.00
   -6.10    -2.88    -7.54     1.00     0.00     0.00
   -6.05    -2.73    -7.28     1.00     0.00     0.00
   -6.00    -2.89    -7.01     1.00     0.00     0.00
   -5.95    -2.59    -7.03     1.00     0.00     0.00
   -5.47    -1.79    -7.56     1.00     0.00     0.00
   -5.71    -2.00    -7.58     1.00     0.00     0.00
   -5.58    -1.90    -7.32     1.00     0.00     0.00
   -5.80    -2.14    -7.33     1.00     0.00     0.00
   -5.12    -3.83    -8.77     1.00     0.00     0.00
   -5.32    -3.94    -6.56     1.00     0.00     0.00
   -4.73    -3.57    -9.01     1.00     0.00     0.00
   -4.65    -3.31    -9.08     1.00     0.00     0.00
   -5.04    -3.59    -8.93     1.00     0.00     0.00
   -5.32    -3.59    -8.79     1.00     0.00     0.00
   -5.03    -1.58    -7.79     1.00     0.00     0.00
   -4.71    -1.52    -7.80     1.00     0.00     0.00
   -5.19    -1.62    -7.54     1.00     0.00     0.00
   -5.32    -1.72    -7.28     1.00     0.00     0.00
   -4.88    -1.52    -7.54     1.00     0.00     0.00
   -4.56    -1.49    -7.56     1.00     0.00     0.00
   -4.11    -3.37    -9.01     1.00     0.00     0.00
   -4.33    -3.21    -9.08     1.00     0.00     0.00
   -3.85    -3.20    -8.93     1.00     0.00     0.00
   -4.41    -3.49    -9.03     1.00     0.00     0.00
   -3.90    -2.56    -8.88     1.00     0.00     0.00
   -4.11    -2.71    -9.01     1.00     0.00     0.00
   -3.98    -2.27    -8.77     1.00     0.00     0.00
   -4.08    -3.04    -9.03     1.00     0.00     0.00
   -3.85    -2.88    -8.93     1.00     0.00     0.00
   -3.89    -1.90    -8.36     1.00     0.00     0.00
   -4.15    -1.79    -8.37     1.00     0.00     0.00
   -4.06    -2.00    -8.60     1.00     0.00     0.00
   -3.80    -2.14    -8.56     1.00     0.00     0.00
   -4.09    -1.59    -7.85     1.00     0.00     0.00
   -3.80    -1.72    -7.84     1.00     0.00     0.00
   -4.24    -1.52    -7.58     1.00     0.00     0.00
   -3.93    -1.62    -7.58     1.00     0.00     0.00
   -4.40    -1.52    -7.84     1.00     0.00     0.00
   -4.56    -1.58    -8.09     1.00     0.00     0.00
   -4.26    -1.62    -8.11     1.00     0.00     0.00
   -3.97    -1.72    -8.11     1.00     0.00     0.00
   -3.62    -3.04    -8.79     1.00     0.00     0.00
   -3.64    -2.73    -8.77     1.00     0.00     0.00
   -3.42    -2.89    -8.60     1.00     0.00     0.00
   -3.47    -2.59    -8.56     1.00     0.00     0.00
   -3.26    -2.76    -8.36     1.00     0.00     0.00
   -3.56    -2.31    -8.50     1.00     0.00     0.00
   -3.72    -2.43    -8.71     1.00     0.00     0.00
   -3.24    -3.04    -8.37     1.00     0.00     0.00
   -3.12    -2.89    -8.11     1.00     0.00     0.00
   -3.17    -2.59    -8.09     1.00     0.00     0.00
   -3.16    -2.43    -7.80     1.00     0.00     0.00
   -3.02    -2.88    -7.58     1.00     0.00     0.00
   -3.33    -2.48    -8.32     1.00     0.00     0.00
   -3.04    -3.04    -7.85     1.00     0.00     0.00
   -3.07    -2.73    -7.84     1.00     0.00     0.00
   -3.28    -2.31    -8.04     1.00     0.00     0.00
   -3.22    -2.27    -7.54     1.00     0.00     0.00
   -3.09    -2.56    -7.56     1.00     0.00     0.00
   -3.06    -2.71    -7.32     1.00     0.00     0.00
   -3.03    -3.04    -7.33     1.00     0.00     0.00
   -3.71    -1.86    -8.09     1.00     0.00     0.00
   -3.65    -2.04    -8.32     1.00     0.00     0.00
   -3.44    -2.23    -8.25     1.00     0.00     0.00
   -3.54    -1.90    -7.80     1.00     0.00     0.00
   -3.47    -2.04    -8.04     1.00     0.00     0.00
   -3.32    -2.14    -7.79     1.00     0.00     0.00
   -3.65    -1.79    -7.56     1.00     0.00     0.00
   -3.41    -2.00    -7.54     1.00     0.00     0.00
   -5.12    -5.00    -8.45     1.00     0.00     0.00
   -4.93    -5.21    -8.44     1.00     0.00     0.00
   -4.88    -5.01    -8.68     1.00     0.00     0.00
   -4.91    -5.40    -8.17     1.00     0.00     0.00
   -5.13    -5.19    -8.19     1.00     0.00     0.00
   -5.07    -5.35    -7.92     1.00     0.00     0.00
   -5.28    -5.11    -7.93     1.00     0.00     0.00
   -5.20    -5.26    -7.66     1.00     0.00     0.00
   -5.14    -5.22    -7.16     1.00     0.00     0.00
   -5.07    -5.36    -7.40     1.00     0.00     0.00
   -4.96    -5.47    -7.64     1.00     0.00     0.00
   -4.90    -5.40    -7.11     1.00     0.00     0.00
   -5.17    -5.03    -6.95     1.00     0.00     0.00
   -5.29    -5.12    -7.41     1.00     0.00     0.00
   -5.27    -4.75    -8.44     1.00     0.00     0.00
   -4.98    -4.50    -8.85     1.00     0.00     0.00
   -5.06    -4.77    -8.68     1.00     0.00     0.00
   -5.20    -4.50    -8.64     1.00     0.00     0.00
   -5.55    -4.55    -7.88     1.00     0.00     0.00
   -5.52    -4.39    -8.12     1.00     0.00     0.00
   -5.37    -4.49    -8.40     1.00     0.00     0.00
   -5.58    -4.22    -7.87     1.00     0.00     0.00
   -5.30    -4.94    -8.19     1.00     0.00     0.00
   -5.44    -4.67    -8.17     1.00     0.00     0.00
   -5.44    -4.84    -7.92     1.00     0.00     0.00
   -5.39    -4.99    -7.66     1.00     0.00     0.00
   -5.28    -4.78    -6.88     1.00     0.00     0.00
   -5.33    -4.95    -7.16     1.00     0.00     0.00
   -5.45    -4.83    -7.40     1.00     0.00     0.00
   -5.52    -4.70    -7.64     1.00     0.00     0.00
   -5.59    -4.38    -7.62     1.00     0.00     0.00
   -5.54    -4.53    -7.36     1.00     0.00     0.00
   -5.44    -4.67    -7.11     1.00     0.00     0.00
   -5.57    -4.22    -7.35     1.00     0.00     0.00
   -5.49    -4.37    -7.09     1.00     0.00     0.00
   -5.37    -4.22    -6.83     1.00     0.00     0.00
   -5.35    -4.50    -6.84     1.00     0.00     0.00
   -5.29    -4.22    -8.58     1.00     0.00     0.00
   -5.09    -4.22    -8.79     1.00     0.00     0.00
   -4.86    -4.22    -8.96     1.00     0.00     0.00
   -4.98    -3.94    -8.85     1.00     0.00     0.00
   -5.44    -4.22    -8.33     1.00     0.00     0.00
   -4.43    -5.40    -8.58     1.00     0.00     0.00
   -4.37    -5.21    -8.79     1.00     0.00     0.00
   -4.30    -5.00    -8.96     1.00     0.00     0.00
   -4.61    -5.01    -8.85     1.00     0.00     0.00
   -4.67    -5.22    -8.64     1.00     0.00     0.00
   -4.07    -5.19    -8.85     1.00     0.00     0.00
   -4.14    -5.40    -8.64     1.00     0.00     0.00
   -4.20    -5.74    -7.88     0.90     0.90     0.90
   -4.34    -5.67    -8.12     1.00     0.00     0.00
   -4.72    -5.40    -8.40     1.00     0.00     0.00
   -4.20    -5.56    -8.40     1.00     0.00     0.00
   -4.48    -5.54    -8.33     1.00     0.00     0.00
   -4.82    -5.54    -7.88     1.00     0.00     0.00
   -4.66    -5.56    -8.12     1.00     0.00     0.00
   -4.52    -5.68    -7.87     1.00     0.00     0.00
   -4.37    -5.74    -7.62     1.00     0.00     0.00
   -4.68    -5.64    -7.62     1.00     0.00     0.00
   -4.52    -5.67    -7.35     1.00     0.00     0.00
   -4.81    -5.54    -7.36     1.00     0.00     0.00
   -4.22    -4.75    -9.09     1.00     0.00     0.00
   -4.14    -4.49    -9.16     1.00     0.00     0.00
   -4.44    -4.50    -9.11     1.00     0.00     0.00
   -4.53    -4.77    -9.01     1.00     0.00     0.00
   -4.72    -4.50    -9.01     1.00     0.00     0.00
   -4.81    -4.77    -8.87     1.00     0.00     0.00
   -4.22    -3.69    -9.09     1.00     0.00     0.00
   -4.14    -3.95    -9.16     1.00     0.00     0.00
   -4.61    -4.22    -9.09     1.00     0.00     0.00
   -4.33    -4.22    -9.16     1.00     0.00     0.00
   -4.44    -3.94    -9.11     1.00     0.00     0.00
   -4.72    -3.94    -9.01     1.00     0.00     0.00
   -4.53    -3.67    -9.01     1.00     0.00     0.00
   -3.64    -5.47    -8.45     0.90     0.90     0.90
   -3.38    -5.36    -8.44     0.90     0.90     0.90
   -3.92    -5.54    -8.44     0.90     0.90     0.90
   -3.29    -5.12    -8.64     1.00     0.00     0.00
   -3.76    -5.11    -8.87     1.00     0.00     0.00
   -3.55    -5.26    -8.68     1.00     0.00     0.00
   -3.84    -5.35    -8.68     1.00     0.00     0.00
   -3.46    -5.54    -8.19     0.90     0.90     0.90
   -3.75    -5.64    -8.19     0.90     0.90     0.90
   -4.05    -5.68    -8.17     0.90     0.90     0.90
   -3.89    -5.74    -7.92     0.90     0.90     0.90
   -4.05    -5.77    -7.64     0.90     0.90     0.90
   -3.39    -4.70    -8.96     1.00     0.00     0.00
   -3.60    -4.55    -9.09     1.00     0.00     0.00
   -3.82    -4.39    -9.16     1.00     0.00     0.00
   -3.34    -4.38    -9.01     1.00     0.00     0.00
   -3.90    -4.67    -9.11     1.00     0.00     0.00
   -3.68    -4.84    -9.01     1.00     0.00     0.00
   -3.47    -4.99    -8.85     1.00     0.00     0.00
   -3.99    -4.94    -9.01     1.00     0.00     0.00
   -4.05    -4.22    -9.19     1.00     0.00     0.00
   -3.39    -3.74    -8.96     1.00     0.00     0.00
   -3.60    -3.89    -9.09     1.00     0.00     0.00
   -3.82    -4.05    -9.16     1.00     0.00     0.00
   -3.90    -3.77    -9.11     1.00     0.00     0.00
   -3.99    -3.50    -9.01     1.00     0.00     0.00
   -3.68    -3.60    -9.01     1.00     0.00     0.00
   -3.47    -3.45    -8.85     1.00     0.00     0.00
   -3.57    -4.22    -9.11     1.00     0.00     0.00
   -3.34    -4.06    -9.01     1.00     0.00     0.00
   -3.76    -3.33    -8.87     1.00     0.00     0.00
   -3.29    -3.32    -8.64     1.00     0.00     0.00
   -3.14    -5.22    -8.40     0.90     0.90     0.90
   -2.96    -5.22    -8.12     0.90     0.90     0.90
   -3.20    -5.40    -8.17     0.90     0.90     0.90
   -2.93    -5.03    -8.33     1.00     0.00     0.00
   -3.13    -4.53    -8.85     1.00     0.00     0.00
   -2.96    -4.67    -8.64     1.00     0.00     0.00
   -2.91    -4.37    -8.68     1.00     0.00     0.00
   -2.75    -4.50    -8.44     1.00     0.00     0.00
   -3.05    -4.95    -8.58     1.00     0.00     0.00
   -3.21    -4.83    -8.79     1.00     0.00     0.00
   -2.66    -4.67    -8.17     1.00     0.00     0.00
   -2.61    -4.37    -8.19     1.00     0.00     0.00
   -2.56    -4.53    -7.92     1.00     0.00     0.00
   -2.82    -4.78    -8.40     1.00     0.00     0.00
   -2.77    -4.95    -8.12     1.00     0.00     0.00
